-0.46000046 0.049999557 -0.19000044
-0.46000046 0.049999557 0.22999956
-0.46000046 0.049999557 0.25999954
-0.46000046 0.07999956 -0.19000044
-0.46000046 0.07999956 -0.16000044
-0.46000046 0.07999956 0.19999956
-0.46000046 0.07999956 0.22999956
-0.46000046 0.07999956 0.25999954
-0.46000046 0.10999956 -0.19000044
-0.46000046 0.10999956 -0.16000044
-0.46000046 0.10999956 0.19999956
-0.46000046 0.10999956 0.22999956
-0.46000046 0.13999955 -0.19000044
-0.46000046 0.13999955 -0.16000044
-0.46000046 0.13999955 -0.13000044
-0.46000046 0.13999955 0.16999955
-0.46000046 0.13999955 0.19999956
-0.46000046 0.13999955 0.22999956
-0.46000046 0.16999955 -0.16000044
-0.46000046 0.16999955 -0.13000044
-0.46000046 0.16999955 -0.10000044
-0.46000046 0.16999955 0.13999955
-0.46000046 0.16999955 0.16999955
-0.46000046 0.16999955 0.19999956
-0.46000046 0.19999956 -0.13000044
-0.46000046 0.19999956 -0.10000044
-0.46000046 0.19999956 -0.07000044
-0.46000046 0.19999956 0.07999956
-0.46000046 0.19999956 0.10999956
-0.46000046 0.19999956 0.13999955
-0.46000046 0.19999956 0.16999955
-0.46000046 0.22999956 -0.10000044
-0.46000046 0.22999956 -0.07000044
-0.46000046 0.22999956 -0.04000044
-0.46000046 0.22999956 -0.010000439
-0.46000046 0.22999956 0.01999956
-0.46000046 0.22999956 0.049999557
-0.46000046 0.22999956 0.07999956
-0.46000046 0.22999956 0.10999956
-0.46000046 0.22999956 0.13999955
-0.46000046 0.25999954 -0.07000044
-0.46000046 0.25999954 -0.04000044
-0.46000046 0.25999954 -0.010000439
-0.46000046 0.25999954 0.01999956
-0.46000046 0.25999954 0.049999557
-0.46000046 0.25999954 0.07999956
-0.43000045 -0.25000045 -0.10000044
-0.43000045 -0.25000045 -0.07000044
-0.43000045 -0.25000045 -0.04000044
-0.43000045 -0.25000045 -0.010000439
-0.43000045 -0.25000045 0.01999956
-0.43000045 -0.25000045 0.049999557
-0.43000045 -0.25000045 0.07999956
-0.43000045 -0.25000045 0.10999956
-0.43000045 -0.25000045 0.13999955
-0.43000045 -0.22000045 -0.16000044
-0.43000045 -0.22000045 -0.13000044
-0.43000045 -0.22000045 -0.10000044
-0.43000045 -0.22000045 0.10999956
-0.43000045 -0.22000045 0.13999955
-0.43000045 -0.22000045 0.16999955
-0.43000045 -0.22000045 0.19999956
-0.43000045 -0.19000044 -0.19000044
-0.43000045 -0.19000044 -0.16000044
-0.43000045 -0.19000044 0.19999956
-0.43000045 -0.19000044 0.22999956
-0.43000045 -0.16000044 -0.22000045
-0.43000045 -0.16000044 -0.19000044
-0.43000045 -0.16000044 0.22999956
-0.43000045 -0.16000044 0.25999954
-0.43000045 -0.16000044 0.28999954
-0.43000045 -0.13000044 -0.22000045
-0.43000045 -0.13000044 0.25999954
-0.43000045 -0.13000044 0.28999954
-0.43000045 -0.13000044 0.31999955
-0.43000045 -0.10000044 -0.25000045
-0.43000045 -0.10000044 -0.22000045
-0.43000045 -0.10000044 0.28999954
-0.43000045 -0.10000044 0.31999955
-0.43000045 -0.07000044 -0.25000045
-0.43000045 -0.07000044 0.31999955
-0.43000045 -0.07000044 0.34999955
-0.43000045 -0.04000044 -0.25000045
-0.43000045 -0.04000044 0.31999955
-0.43000045 -0.04000044 0.34999955
-0.43000045 -0.010000439 -0.25000045
-0.43000045 -0.010000439 0.31999955
-0.43000045 -0.010000439 0.34999955
-0.43000045 0.01999956 -0.25000045
-0.43000045 0.01999956 0.31999955
-0.43000045 0.01999956 0.34999955
-0.43000045 0.049999557 -0.25000045
-0.43000045 0.049999557 0.31999955
-0.43000045 0.049999557 0.34999955
-0.43000045 0.07999956 -0.25000045
-0.43000045 0.07999956 0.31999955
-0.43000045 0.07999956 0.34999955
-0.43000045 0.10999956 -0.25000045
-0.43000045 0.10999956 -0.22000045
-0.43000045 0.10999956 0.28999954
-0.43000045 0.10999956 0.31999955
-0.43000045 0.13999955 -0.25000045
-0.43000045 0.13999955 -0.22000045
-0.43000045 0.13999955 0.28999954
-0.43000045 0.13999955 0.31999955
-0.43000045 0.16999955 -0.22000045
-0.43000045 0.16999955 0.25999954
-0.43000045 0.16999955 0.28999954
-0.43000045 0.19999956 -0.22000045
-0.43000045 0.19999956 -0.19000044
-0.43000045 0.19999956 0.22999956
-0.43000045 0.19999956 0.25999954
-0.43000045 0.22999956 -0.19000044
-0.43000045 0.22999956 -0.16000044
-0.43000045 0.22999956 0.19999956
-0.43000045 0.22999956 0.22999956
-0.43000045 0.25999954 -0.16000044
-0.43000045 0.25999954 -0.13000044
-0.43000045 0.25999954 0.16999955
-0.43000045 0.25999954 0.19999956
-0.43000045 0.28999954 -0.16000044
-0.43000045 0.28999954 -0.13000044
-0.43000045 0.28999954 -0.10000044
-0.43000045 0.28999954 0.10999956
-0.43000045 0.28999954 0.13999955
-0.43000045 0.28999954 0.16999955
-0.43000045 0.31999955 -0.13000044
-0.43000045 0.31999955 -0.10000044
-0.43000045 0.31999955 -0.07000044
-0.43000045 0.31999955 -0.04000044
-0.43000045 0.31999955 -0.010000439
-0.43000045 0.31999955 0.01999956
-0.43000045 0.31999955 0.049999557
-0.43000045 0.31999955 0.07999956
-0.43000045 0.31999955 0.10999956
-0.43000045 0.31999955 0.13999955
-0.43000045 0.34999955 -0.07000044
-0.43000045 0.34999955 -0.04000044
-0.43000045 0.34999955 -0.010000439
-0.43000045 0.34999955 0.01999956
-0.43000045 0.34999955 0.049999557
-0.43000045 0.34999955 0.07999956
-0.40000045 -0.31000045 -0.04000044
-0.40000045 -0.31000045 -0.010000439
-0.40000045 -0.31000045 0.01999956
-0.40000045 -0.31000045 0.049999557
-0.40000045 -0.31000045 0.07999956
-0.40000045 -0.28000045 -0.13000044
-0.40000045 -0.28000045 -0.10000044
-0.40000045 -0.28000045 -0.07000044
-0.40000045 -0.28000045 -0.04000044
-0.40000045 -0.28000045 0.049999557
-0.40000045 -0.28000045 0.07999956
-0.40000045 -0.28000045 0.10999956
-0.40000045 -0.28000045 0.13999955
-0.40000045 -0.28000045 0.16999955
-0.40000045 -0.25000045 -0.19000044
-0.40000045 -0.25000045 -0.16000044
-0.40000045 -0.25000045 0.16999955
-0.40000045 -0.25000045 0.19999956
-0.40000045 -0.25000045 0.22999956
-0.40000045 -0.22000045 -0.22000045
-0.40000045 -0.22000045 -0.19000044
-0.40000045 -0.22000045 0.22999956
-0.40000045 -0.22000045 0.25999954
-0.40000045 -0.22000045 0.28999954
-0.40000045 -0.19000044 -0.25000045
-0.40000045 -0.19000044 -0.22000045
-0.40000045 -0.19000044 0.28999954
-0.40000045 -0.19000044 0.31999955
-0.40000045 -0.16000044 -0.25000045
-0.40000045 -0.16000044 0.31999955
-0.40000045 -0.16000044 0.34999955
-0.40000045 -0.13000044 -0.28000045
-0.40000045 -0.13000044 0.34999955
-0.40000045 -0.13000044 0.37999955
-0.40000045 -0.10000044 -0.28000045
-0.40000045 -0.10000044 0.37999955
-0.40000045 -0.10000044 0.40999955
-0.40000045 -0.07000044 -0.28000045
-0.40000045 -0.07000044 0.40999955
-0.40000045 -0.07000044 0.43999955
-0.40000045 -0.04000044 -0.31000045
-0.40000045 -0.04000044 -0.28000045
-0.40000045 -0.04000044 0.40999955
-0.40000045 -0.04000044 0.43999955
-0.40000045 -0.010000439 -0.31000045
-0.40000045 -0.010000439 0.40999955
-0.40000045 -0.010000439 0.43999955
-0.40000045 0.01999956 -0.31000045
-0.40000045 0.01999956 0.40999955
-0.40000045 0.01999956 0.43999955
-0.40000045 0.049999557 -0.31000045
-0.40000045 0.049999557 -0.28000045
-0.40000045 0.049999557 0.40999955
-0.40000045 0.049999557 0.43999955
-0.40000045 0.07999956 -0.31000045
-0.40000045 0.07999956 -0.28000045
-0.40000045 0.07999956 0.40999955
-0.40000045 0.07999956 0.43999955
-0.40000045 0.10999956 -0.28000045
-0.40000045 0.10999956 0.37999955
-0.40000045 0.10999956 0.40999955
-0.40000045 0.13999955 -0.28000045
-0.40000045 0.13999955 0.34999955
-0.40000045 0.13999955 0.37999955
-0.40000045 0.16999955 -0.28000045
-0.40000045 0.16999955 -0.25000045
-0.40000045 0.16999955 0.34999955
-0.40000045 0.16999955 0.37999955
-0.40000045 0.19999956 -0.25000045
-0.40000045 0.19999956 0.31999955
-0.40000045 0.19999956 0.34999955
-0.40000045 0.22999956 -0.25000045
-0.40000045 0.22999956 -0.22000045
-0.40000045 0.22999956 0.28999954
-0.40000045 0.22999956 0.31999955
-0.40000045 0.25999954 -0.22000045
-0.40000045 0.25999954 0.25999954
-0.40000045 0.25999954 0.28999954
-0.40000045 0.28999954 -0.22000045
-0.40000045 0.28999954 -0.19000044
-0.40000045 0.28999954 0.22999956
-0.40000045 0.28999954 0.25999954
-0.40000045 0.31999955 -0.19000044
-0.40000045 0.31999955 -0.16000044
-0.40000045 0.31999955 0.19999956
-0.40000045 0.31999955 0.22999956
-0.40000045 0.34999955 -0.16000044
-0.40000045 0.34999955 -0.13000044
-0.40000045 0.34999955 0.13999955
-0.40000045 0.34999955 0.16999955
-0.40000045 0.34999955 0.19999956
-0.40000045 0.37999955 -0.13000044
-0.40000045 0.37999955 -0.10000044
-0.40000045 0.37999955 0.10999956
-0.40000045 0.37999955 0.13999955
-0.40000045 0.37999955 0.16999955
-0.40000045 0.40999955 -0.10000044
-0.40000045 0.40999955 -0.07000044
-0.40000045 0.40999955 -0.04000044
-0.40000045 0.40999955 -0.010000439
-0.40000045 0.40999955 0.01999956
-0.40000045 0.40999955 0.049999557
-0.40000045 0.40999955 0.07999956
-0.40000045 0.40999955 0.10999956
-0.40000045 0.43999955 -0.07000044
-0.40000045 0.43999955 -0.04000044
-0.40000045 0.43999955 -0.010000439
-0.40000045 0.43999955 0.01999956
-0.40000045 0.43999955 0.049999557
-0.40000045 0.43999955 0.07999956
-0.37000045 -0.34000045 -0.07000044
-0.37000045 -0.34000045 -0.04000044
-0.37000045 -0.34000045 -0.010000439
-0.37000045 -0.34000045 0.01999956
-0.37000045 -0.34000045 0.049999557
-0.37000045 -0.34000045 0.07999956
-0.37000045 -0.34000045 0.10999956
-0.37000045 -0.31000045 -0.16000044
-0.37000045 -0.31000045 -0.13000044
-0.37000045 -0.31000045 -0.10000044
-0.37000045 -0.31000045 0.10999956
-0.37000045 -0.31000045 0.13999955
-0.37000045 -0.31000045 0.16999955
-0.37000045 -0.31000045 0.19999956
-0.37000045 -0.28000045 -0.19000044
-0.37000045 -0.28000045 -0.16000044
-0.37000045 -0.28000045 0.19999956
-0.37000045 -0.28000045 0.22999956
-0.37000045 -0.28000045 0.25999954
-0.37000045 -0.25000045 -0.22000045
-0.37000045 -0.25000045 0.28999954
-0.37000045 -0.25000045 0.31999955
-0.37000045 -0.22000045 -0.25000045
-0.37000045 -0.22000045 0.31999955
-0.37000045 -0.22000045 0.34999955
-0.37000045 -0.19000044 -0.28000045
-0.37000045 -0.19000044 0.37999955
-0.37000045 -0.19000044 0.40999955
-0.37000045 -0.16000044 -0.31000045
-0.37000045 -0.16000044 -0.28000045
-0.37000045 -0.16000044 0.40999955
-0.37000045 -0.16000044 0.43999955
-0.37000045 -0.13000044 -0.31000045
-0.37000045 -0.13000044 0.43999955
-0.37000045 -0.13000044 0.46999955
-0.37000045 -0.10000044 -0.31000045
-0.37000045 -0.10000044 0.46999955
-0.37000045 -0.10000044 0.49999955
-0.37000045 -0.07000044 -0.34000045
-0.37000045 -0.07000044 0.49999955
-0.37000045 -0.07000044 0.52999955
-0.37000045 -0.04000044 -0.34000045
-0.37000045 -0.04000044 0.49999955
-0.37000045 -0.04000044 0.52999955
-0.37000045 -0.04000044 0.5599995
-0.37000045 -0.010000439 -0.34000045
-0.37000045 -0.010000439 0.49999955
-0.37000045 -0.010000439 0.52999955
-0.37000045 -0.010000439 0.5599995
-0.37000045 0.01999956 -0.34000045
-0.37000045 0.01999956 0.49999955
-0.37000045 0.01999956 0.52999955
-0.37000045 0.01999956 0.5599995
-0.37000045 0.049999557 -0.34000045
-0.37000045 0.049999557 0.49999955
-0.37000045 0.049999557 0.52999955
-0.37000045 0.049999557 0.5599995
-0.37000045 0.07999956 -0.34000045
-0.37000045 0.07999956 0.49999955
-0.37000045 0.07999956 0.52999955
-0.37000045 0.10999956 -0.34000045
-0.37000045 0.10999956 -0.31000045
-0.37000045 0.10999956 0.46999955
-0.37000045 0.10999956 0.49999955
-0.37000045 0.13999955 -0.31000045
-0.37000045 0.13999955 0.43999955
-0.37000045 0.13999955 0.46999955
-0.37000045 0.16999955 -0.31000045
-0.37000045 0.16999955 0.40999955
-0.37000045 0.16999955 0.43999955
-0.37000045 0.19999956 -0.31000045
-0.37000045 0.19999956 -0.28000045
-0.37000045 0.19999956 0.37999955
-0.37000045 0.19999956 0.40999955
-0.37000045 0.22999956 -0.28000045
-0.37000045 0.22999956 0.34999955
-0.37000045 0.22999956 0.37999955
-0.37000045 0.25999954 -0.28000045
-0.37000045 0.25999954 0.31999955
-0.37000045 0.25999954 0.34999955
-0.37000045 0.28999954 -0.25000045
-0.37000045 0.28999954 0.28999954
-0.37000045 0.28999954 0.31999955
-0.37000045 0.31999955 -0.25000045
-0.37000045 0.31999955 -0.22000045
-0.37000045 0.31999955 0.25999954
-0.37000045 0.31999955 0.28999954
-0.37000045 0.34999955 -0.22000045
-0.37000045 0.34999955 0.22999956
-0.37000045 0.34999955 0.25999954
-0.37000045 0.37999955 -0.19000044
-0.37000045 0.37999955 0.19999956
-0.37000045 0.37999955 0.22999956
-0.37000045 0.40999955 -0.19000044
-0.37000045 0.40999955 -0.16000044
-0.37000045 0.40999955 0.16999955
-0.37000045 0.40999955 0.19999956
-0.37000045 0.43999955 -0.16000044
-0.37000045 0.43999955 -0.13000044
-0.37000045 0.43999955 0.13999955
-0.37000045 0.43999955 0.16999955
-0.37000045 0.46999955 -0.13000044
-0.37000045 0.46999955 -0.10000044
-0.37000045 0.46999955 0.10999956
-0.37000045 0.46999955 0.13999955
-0.37000045 0.49999955 -0.10000044
-0.37000045 0.49999955 -0.07000044
-0.37000045 0.49999955 -0.04000044
-0.37000045 0.49999955 -0.010000439
-0.37000045 0.49999955 0.01999956
-0.37000045 0.49999955 0.049999557
-0.37000045 0.49999955 0.07999956
-0.37000045 0.49999955 0.10999956
-0.37000045 0.52999955 -0.07000044
-0.37000045 0.52999955 -0.04000044
-0.37000045 0.52999955 -0.010000439
-0.37000045 0.52999955 0.01999956
-0.37000045 0.52999955 0.049999557
-0.37000045 0.52999955 0.07999956
-0.37000045 0.5599995 -0.04000044
-0.37000045 0.5599995 -0.010000439
-0.37000045 0.5599995 0.01999956
-0.37000045 0.5599995 0.049999557
-0.34000045 -0.37000045 -0.07000044
-0.34000045 -0.37000045 -0.04000044
-0.34000045 -0.37000045 -0.010000439
-0.34000045 -0.37000045 0.01999956
-0.34000045 -0.37000045 0.049999557
-0.34000045 -0.37000045 0.07999956
-0.34000045 -0.37000045 0.10999956
-0.34000045 -0.34000045 -0.16000044
-0.34000045 -0.34000045 -0.13000044
-0.34000045 -0.34000045 -0.10000044
-0.34000045 -0.34000045 0.13999955
-0.34000045 -0.34000045 0.16999955
-0.34000045 -0.34000045 0.19999956
-0.34000045 -0.31000045 -0.22000045
-0.34000045 -0.31000045 -0.19000044
-0.34000045 -0.31000045 0.22999956
-0.34000045 -0.31000045 0.25999954
-0.34000045 -0.28000045 -0.25000045
-0.34000045 -0.28000045 -0.22000045
-0.34000045 -0.28000045 0.28999954
-0.34000045 -0.28000045 0.31999955
-0.34000045 -0.25000045 -0.28000045
-0.34000045 -0.25000045 -0.25000045
-0.34000045 -0.25000045 0.34999955
-0.34000045 -0.25000045 0.37999955
-0.34000045 -0.22000045 -0.31000045
-0.34000045 -0.22000045 -0.28000045
-0.34000045 -0.22000045 0.40999955
-0.34000045 -0.22000045 0.43999955
-0.34000045 -0.19000044 -0.31000045
-0.34000045 -0.19000044 0.43999955
-0.34000045 -0.19000044 0.46999955
-0.34000045 -0.19000044 0.49999955
-0.34000045 -0.16000044 -0.34000045
-0.34000045 -0.16000044 0.49999955
-0.34000045 -0.16000044 0.52999955
-0.34000045 -0.13000044 -0.34000045
-0.34000045 -0.13000044 0.52999955
-0.34000045 -0.13000044 0.5599995
-0.34000045 -0.13000044 0.5899995
-0.34000045 -0.10000044 -0.34000045
-0.34000045 -0.10000044 0.5899995
-0.34000045 -0.10000044 0.61999947
-0.34000045 -0.10000044 0.64999944
-0.34000045 -0.07000044 -0.37000045
-0.34000045 -0.07000044 0.61999947
-0.34000045 -0.07000044 0.64999944
-0.34000045 -0.07000044 0.6799994
-0.34000045 -0.07000044 0.7099994
-0.34000045 -0.04000044 -0.37000045
-0.34000045 -0.04000044 0.64999944
-0.34000045 -0.04000044 0.6799994
-0.34000045 -0.04000044 0.7099994
-0.34000045 -0.04000044 0.73999935
-0.34000045 -0.010000439 -0.37000045
-0.34000045 -0.010000439 0.64999944
-0.34000045 -0.010000439 0.6799994
-0.34000045 -0.010000439 0.7099994
-0.34000045 -0.010000439 0.73999935
-0.34000045 0.01999956 -0.37000045
-0.34000045 0.01999956 0.64999944
-0.34000045 0.01999956 0.6799994
-0.34000045 0.01999956 0.7099994
-0.34000045 0.01999956 0.73999935
-0.34000045 0.049999557 -0.37000045
-0.34000045 0.049999557 0.61999947
-0.34000045 0.049999557 0.64999944
-0.34000045 0.049999557 0.6799994
-0.34000045 0.049999557 0.7099994
-0.34000045 0.07999956 -0.37000045
-0.34000045 0.07999956 0.5899995
-0.34000045 0.07999956 0.61999947
-0.34000045 0.07999956 0.64999944
-0.34000045 0.07999956 0.6799994
-0.34000045 0.10999956 -0.37000045
-0.34000045 0.10999956 0.5599995
-0.34000045 0.10999956 0.5899995
-0.34000045 0.10999956 0.61999947
-0.34000045 0.10999956 0.64999944
-0.34000045 0.13999955 -0.34000045
-0.34000045 0.13999955 0.52999955
-0.34000045 0.13999955 0.5599995
-0.34000045 0.13999955 0.5899995
-0.34000045 0.16999955 -0.34000045
-0.34000045 0.16999955 0.49999955
-0.34000045 0.16999955 0.52999955
-0.34000045 0.19999956 -0.34000045
-0.34000045 0.19999956 0.46999955
-0.34000045 0.19999956 0.49999955
-0.34000045 0.22999956 -0.31000045
-0.34000045 0.22999956 0.40999955
-0.34000045 0.22999956 0.43999955
-0.34000045 0.25999954 -0.31000045
-0.34000045 0.25999954 0.37999955
-0.34000045 0.25999954 0.40999955
-0.34000045 0.28999954 -0.28000045
-0.34000045 0.28999954 0.34999955
-0.34000045 0.28999954 0.37999955
-0.34000045 0.31999955 -0.28000045
-0.34000045 0.31999955 0.31999955
-0.34000045 0.31999955 0.34999955
-0.34000045 0.34999955 -0.25000045
-0.34000045 0.34999955 0.28999954
-0.34000045 0.34999955 0.31999955
-0.34000045 0.37999955 -0.25000045
-0.34000045 0.37999955 0.25999954
-0.34000045 0.37999955 0.28999954
-0.34000045 0.40999955 -0.22000045
-0.34000045 0.40999955 0.22999956
-0.34000045 0.40999955 0.25999954
-0.34000045 0.43999955 -0.22000045
-0.34000045 0.43999955 -0.19000044
-0.34000045 0.43999955 0.22999956
-0.34000045 0.46999955 -0.19000044
-0.34000045 0.46999955 0.19999956
-0.34000045 0.49999955 -0.19000044
-0.34000045 0.49999955 -0.16000044
-0.34000045 0.49999955 0.16999955
-0.34000045 0.49999955 0.19999956
-0.34000045 0.52999955 -0.16000044
-0.34000045 0.52999955 -0.13000044
-0.34000045 0.52999955 0.13999955
-0.34000045 0.52999955 0.16999955
-0.34000045 0.5599995 -0.13000044
-0.34000045 0.5599995 0.10999956
-0.34000045 0.5599995 0.13999955
-0.34000045 0.5899995 -0.13000044
-0.34000045 0.5899995 -0.10000044
-0.34000045 0.5899995 0.07999956
-0.34000045 0.5899995 0.10999956
-0.34000045 0.5899995 0.13999955
-0.34000045 0.61999947 -0.10000044
-0.34000045 0.61999947 -0.07000044
-0.34000045 0.61999947 0.049999557
-0.34000045 0.61999947 0.07999956
-0.34000045 0.61999947 0.10999956
-0.34000045 0.64999944 -0.10000044
-0.34000045 0.64999944 -0.07000044
-0.34000045 0.64999944 -0.04000044
-0.34000045 0.64999944 -0.010000439
-0.34000045 0.64999944 0.01999956
-0.34000045 0.64999944 0.049999557
-0.34000045 0.64999944 0.07999956
-0.34000045 0.64999944 0.10999956
-0.34000045 0.6799994 -0.07000044
-0.34000045 0.6799994 -0.04000044
-0.34000045 0.6799994 -0.010000439
-0.34000045 0.6799994 0.01999956
-0.34000045 0.6799994 0.049999557
-0.34000045 0.6799994 0.07999956
-0.34000045 0.7099994 -0.07000044
-0.34000045 0.7099994 -0.04000044
-0.34000045 0.7099994 -0.010000439
-0.34000045 0.7099994 0.01999956
-0.34000045 0.7099994 0.049999557
-0.34000045 0.73999935 -0.04000044
-0.34000045 0.73999935 -0.010000439
-0.34000045 0.73999935 0.01999956
-0.31000045 -0.40000045 -0.04000044
-0.31000045 -0.40000045 -0.010000439
-0.31000045 -0.40000045 0.01999956
-0.31000045 -0.40000045 0.049999557
-0.31000045 -0.40000045 0.07999956
-0.31000045 -0.37000045 -0.16000044
-0.31000045 -0.37000045 -0.13000044
-0.31000045 -0.37000045 -0.10000044
-0.31000045 -0.37000045 0.10999956
-0.31000045 -0.37000045 0.13999955
-0.31000045 -0.37000045 0.16999955
-0.31000045 -0.37000045 0.19999956
-0.31000045 -0.34000045 -0.22000045
-0.31000045 -0.34000045 -0.19000044
-0.31000045 -0.34000045 0.22999956
-0.31000045 -0.34000045 0.25999954
-0.31000045 -0.31000045 -0.25000045
-0.31000045 -0.31000045 -0.22000045
-0.31000045 -0.31000045 0.28999954
-0.31000045 -0.31000045 0.31999955
-0.31000045 -0.31000045 0.34999955
-0.31000045 -0.28000045 -0.28000045
-0.31000045 -0.28000045 0.34999955
-0.31000045 -0.28000045 0.37999955
-0.31000045 -0.28000045 0.40999955
-0.31000045 -0.25000045 -0.31000045
-0.31000045 -0.25000045 0.40999955
-0.31000045 -0.25000045 0.43999955
-0.31000045 -0.25000045 0.46999955
-0.31000045 -0.22000045 -0.34000045
-0.31000045 -0.22000045 -0.31000045
-0.31000045 -0.22000045 0.46999955
-0.31000045 -0.22000045 0.49999955
-0.31000045 -0.22000045 0.52999955
-0.31000045 -0.19000044 -0.34000045
-0.31000045 -0.19000044 0.52999955
-0.31000045 -0.19000044 0.5599995
-0.31000045 -0.19000044 0.5899995
-0.31000045 -0.16000044 -0.37000045
-0.31000045 -0.16000044 0.5899995
-0.31000045 -0.16000044 0.61999947
-0.31000045 -0.16000044 0.64999944
-0.31000045 -0.16000044 0.6799994
-0.31000045 -0.13000044 -0.37000045
-0.31000045 -0.13000044 0.6799994
-0.31000045 -0.13000044 0.7099994
-0.31000045 -0.13000044 0.73999935
-0.31000045 -0.13000044 0.7699993
-0.31000045 -0.13000044 0.7999993
-0.31000045 -0.10000044 -0.37000045
-0.31000045 -0.10000044 0.73999935
-0.31000045 -0.10000044 0.7699993
-0.31000045 -0.10000044 0.7999993
-0.31000045 -0.10000044 0.82999927
-0.31000045 -0.10000044 0.85999924
-0.31000045 -0.10000044 0.8899992
-0.31000045 -0.10000044 0.9199992
-0.31000045 -0.07000044 0.82999927
-0.31000045 -0.07000044 0.85999924
-0.31000045 -0.07000044 0.8899992
-0.31000045 -0.07000044 0.9199992
-0.31000045 -0.07000044 0.94999915
-0.31000045 -0.07000044 0.9799991
-0.31000045 -0.07000044 1.0099992
-0.31000045 -0.04000044 -0.40000045
-0.31000045 -0.04000044 0.8899992
-0.31000045 -0.04000044 0.9199992
-0.31000045 -0.04000044 0.94999915
-0.31000045 -0.04000044 0.9799991
-0.31000045 -0.04000044 1.0099992
-0.31000045 -0.04000044 1.0399991
-0.31000045 -0.010000439 -0.40000045
-0.31000045 -0.010000439 0.94999915
-0.31000045 -0.010000439 0.9799991
-0.31000045 -0.010000439 1.0099992
-0.31000045 -0.010000439 1.0399991
-0.31000045 -0.010000439 1.0699991
-0.31000045 0.01999956 -0.40000045
-0.31000045 0.01999956 0.9199992
-0.31000045 0.01999956 0.94999915
-0.31000045 0.01999956 0.9799991
-0.31000045 0.01999956 1.0099992
-0.31000045 0.01999956 1.0399991
-0.31000045 0.049999557 -0.40000045
-0.31000045 0.049999557 0.8899992
-0.31000045 0.049999557 0.9199992
-0.31000045 0.049999557 0.94999915
-0.31000045 0.049999557 0.9799991
-0.31000045 0.049999557 1.0099992
-0.31000045 0.049999557 1.0399991
-0.31000045 0.07999956 -0.40000045
-0.31000045 0.07999956 0.7999993
-0.31000045 0.07999956 0.82999927
-0.31000045 0.07999956 0.85999924
-0.31000045 0.07999956 0.8899992
-0.31000045 0.07999956 0.9199992
-0.31000045 0.07999956 0.94999915
-0.31000045 0.07999956 0.9799991
-0.31000045 0.07999956 1.0099992
-0.31000045 0.10999956 -0.37000045
-0.31000045 0.10999956 0.73999935
-0.31000045 0.10999956 0.7699993
-0.31000045 0.10999956 0.7999993
-0.31000045 0.10999956 0.82999927
-0.31000045 0.10999956 0.85999924
-0.31000045 0.13999955 -0.37000045
-0.31000045 0.13999955 0.64999944
-0.31000045 0.13999955 0.6799994
-0.31000045 0.13999955 0.7099994
-0.31000045 0.13999955 0.73999935
-0.31000045 0.13999955 0.7699993
-0.31000045 0.16999955 -0.37000045
-0.31000045 0.16999955 0.5899995
-0.31000045 0.16999955 0.61999947
-0.31000045 0.16999955 0.64999944
-0.31000045 0.19999956 -0.37000045
-0.31000045 0.19999956 0.52999955
-0.31000045 0.19999956 0.5599995
-0.31000045 0.19999956 0.5899995
-0.31000045 0.22999956 -0.34000045
-0.31000045 0.22999956 0.49999955
-0.31000045 0.22999956 0.52999955
-0.31000045 0.25999954 -0.34000045
-0.31000045 0.25999954 0.43999955
-0.31000045 0.25999954 0.46999955
-0.31000045 0.28999954 -0.31000045
-0.31000045 0.28999954 0.40999955
-0.31000045 0.28999954 0.43999955
-0.31000045 0.31999955 -0.31000045
-0.31000045 0.31999955 0.37999955
-0.31000045 0.31999955 0.40999955
-0.31000045 0.34999955 -0.31000045
-0.31000045 0.34999955 -0.28000045
-0.31000045 0.34999955 0.34999955
-0.31000045 0.37999955 -0.28000045
-0.31000045 0.37999955 0.31999955
-0.31000045 0.40999955 -0.28000045
-0.31000045 0.40999955 -0.25000045
-0.31000045 0.40999955 0.28999954
-0.31000045 0.40999955 0.31999955
-0.31000045 0.43999955 -0.25000045
-0.31000045 0.43999955 0.25999954
-0.31000045 0.43999955 0.28999954
-0.31000045 0.46999955 -0.25000045
-0.31000045 0.46999955 -0.22000045
-0.31000045 0.46999955 0.25999954
-0.31000045 0.49999955 -0.22000045
-0.31000045 0.49999955 0.22999956
-0.31000045 0.52999955 -0.22000045
-0.31000045 0.52999955 -0.19000044
-0.31000045 0.52999955 0.19999956
-0.31000045 0.52999955 0.22999956
-0.31000045 0.5599995 -0.19000044
-0.31000045 0.5599995 0.19999956
-0.31000045 0.5899995 -0.19000044
-0.31000045 0.5899995 -0.16000044
-0.31000045 0.5899995 0.16999955
-0.31000045 0.5899995 0.19999956
-0.31000045 0.61999947 -0.16000044
-0.31000045 0.61999947 0.16999955
-0.31000045 0.64999944 -0.16000044
-0.31000045 0.64999944 0.13999955
-0.31000045 0.64999944 0.16999955
-0.31000045 0.6799994 -0.16000044
-0.31000045 0.6799994 -0.13000044
-0.31000045 0.6799994 0.13999955
-0.31000045 0.7099994 -0.13000044
-0.31000045 0.7099994 0.13999955
-0.31000045 0.73999935 -0.13000044
-0.31000045 0.73999935 -0.10000044
-0.31000045 0.73999935 0.10999956
-0.31000045 0.73999935 0.13999955
-0.31000045 0.7699993 -0.13000044
-0.31000045 0.7699993 -0.10000044
-0.31000045 0.7699993 0.10999956
-0.31000045 0.7699993 0.13999955
-0.31000045 0.7999993 -0.13000044
-0.31000045 0.7999993 -0.10000044
-0.31000045 0.7999993 0.07999956
-0.31000045 0.7999993 0.10999956
-0.31000045 0.82999927 -0.10000044
-0.31000045 0.82999927 -0.07000044
-0.31000045 0.82999927 0.07999956
-0.31000045 0.82999927 0.10999956
-0.31000045 0.85999924 -0.10000044
-0.31000045 0.85999924 -0.07000044
-0.31000045 0.85999924 0.07999956
-0.31000045 0.85999924 0.10999956
-0.31000045 0.8899992 -0.10000044
-0.31000045 0.8899992 -0.07000044
-0.31000045 0.8899992 -0.04000044
-0.31000045 0.8899992 0.049999557
-0.31000045 0.8899992 0.07999956
-0.31000045 0.9199992 -0.10000044
-0.31000045 0.9199992 -0.07000044
-0.31000045 0.9199992 -0.04000044
-0.31000045 0.9199992 0.01999956
-0.31000045 0.9199992 0.049999557
-0.31000045 0.9199992 0.07999956
-0.31000045 0.94999915 -0.07000044
-0.31000045 0.94999915 -0.04000044
-0.31000045 0.94999915 -0.010000439
-0.31000045 0.94999915 0.01999956
-0.31000045 0.94999915 0.049999557
-0.31000045 0.94999915 0.07999956
-0.31000045 0.9799991 -0.07000044
-0.31000045 0.9799991 -0.04000044
-0.31000045 0.9799991 -0.010000439
-0.31000045 0.9799991 0.01999956
-0.31000045 0.9799991 0.049999557
-0.31000045 0.9799991 0.07999956
-0.31000045 1.0099992 -0.07000044
-0.31000045 1.0099992 -0.04000044
-0.31000045 1.0099992 -0.010000439
-0.31000045 1.0099992 0.01999956
-0.31000045 1.0099992 0.049999557
-0.31000045 1.0099992 0.07999956
-0.31000045 1.0399991 -0.04000044
-0.31000045 1.0399991 -0.010000439
-0.31000045 1.0399991 0.01999956
-0.31000045 1.0399991 0.049999557
-0.31000045 1.0699991 -0.010000439
-0.28000045 -0.40000045 -0.13000044
-0.28000045 -0.40000045 -0.10000044
-0.28000045 -0.40000045 -0.07000044
-0.28000045 -0.40000045 -0.04000044
-0.28000045 -0.40000045 0.049999557
-0.28000045 -0.40000045 0.07999956
-0.28000045 -0.40000045 0.10999956
-0.28000045 -0.40000045 0.13999955
-0.28000045 -0.40000045 0.16999955
-0.28000045 -0.37000045 -0.19000044
-0.28000045 -0.37000045 -0.16000044
-0.28000045 -0.37000045 0.19999956
-0.28000045 -0.37000045 0.22999956
-0.28000045 -0.37000045 0.25999954
-0.28000045 -0.34000045 -0.25000045
-0.28000045 -0.34000045 -0.22000045
-0.28000045 -0.34000045 0.28999954
-0.28000045 -0.34000045 0.31999955
-0.28000045 -0.31000045 -0.28000045
-0.28000045 -0.31000045 0.34999955
-0.28000045 -0.31000045 0.37999955
-0.28000045 -0.31000045 0.40999955
-0.28000045 -0.28000045 -0.31000045
-0.28000045 -0.28000045 0.43999955
-0.28000045 -0.28000045 0.46999955
-0.28000045 -0.25000045 -0.34000045
-0.28000045 -0.25000045 0.49999955
-0.28000045 -0.25000045 0.52999955
-0.28000045 -0.22000045 -0.34000045
-0.28000045 -0.22000045 0.5599995
-0.28000045 -0.22000045 0.5899995
-0.28000045 -0.22000045 0.61999947
-0.28000045 -0.22000045 0.64999944
-0.28000045 -0.19000044 -0.37000045
-0.28000045 -0.19000044 0.64999944
-0.28000045 -0.19000044 0.6799994
-0.28000045 -0.19000044 0.7099994
-0.28000045 -0.19000044 0.73999935
-0.28000045 -0.19000044 0.7699993
-0.28000045 -0.16000044 -0.37000045
-0.28000045 -0.16000044 0.7699993
-0.28000045 -0.16000044 0.7999993
-0.28000045 -0.16000044 0.82999927
-0.28000045 -0.16000044 0.85999924
-0.28000045 -0.16000044 0.8899992
-0.28000045 -0.16000044 0.9199992
-0.28000045 -0.16000044 0.94999915
-0.28000045 -0.13000044 -0.40000045
-0.28000045 -0.13000044 0.94999915
-0.28000045 -0.13000044 0.9799991
-0.28000045 -0.13000044 1.0099992
-0.28000045 -0.13000044 1.0399991
-0.28000045 -0.13000044 1.0699991
-0.28000045 -0.10000044 -0.40000045
-0.28000045 -0.10000044 1.0699991
-0.28000045 -0.10000044 1.0999991
-0.28000045 -0.07000044 -0.40000045
-0.28000045 -0.07000044 1.0999991
-0.28000045 -0.04000044 -0.40000045
-0.28000045 -0.04000044 1.129999
-0.28000045 -0.010000439 1.129999
-0.28000045 0.01999956 1.129999
-0.28000045 0.049999557 -0.40000045
-0.28000045 0.049999557 1.129999
-0.28000045 0.07999956 -0.40000045
-0.28000045 0.07999956 1.0999991
-0.28000045 0.10999956 -0.40000045
-0.28000045 0.10999956 1.0699991
-0.28000045 0.13999955 -0.40000045
-0.28000045 0.13999955 0.8899992
-0.28000045 0.13999955 0.9199992
-0.28000045 0.13999955 0.94999915
-0.28000045 0.13999955 0.9799991
-0.28000045 0.13999955 1.0099992
-0.28000045 0.13999955 1.0399991
-0.28000045 0.16999955 -0.40000045
-0.28000045 0.16999955 0.73999935
-0.28000045 0.16999955 0.7699993
-0.28000045 0.16999955 0.7999993
-0.28000045 0.16999955 0.82999927
-0.28000045 0.16999955 0.85999924
-0.28000045 0.16999955 0.8899992
-0.28000045 0.19999956 -0.37000045
-0.28000045 0.19999956 0.64999944
-0.28000045 0.19999956 0.6799994
-0.28000045 0.19999956 0.7099994
-0.28000045 0.19999956 0.73999935
-0.28000045 0.22999956 -0.37000045
-0.28000045 0.22999956 0.5599995
-0.28000045 0.22999956 0.5899995
-0.28000045 0.22999956 0.61999947
-0.28000045 0.25999954 -0.37000045
-0.28000045 0.25999954 0.49999955
-0.28000045 0.25999954 0.52999955
-0.28000045 0.25999954 0.5599995
-0.28000045 0.28999954 -0.34000045
-0.28000045 0.28999954 0.46999955
-0.28000045 0.28999954 0.49999955
-0.28000045 0.31999955 -0.34000045
-0.28000045 0.31999955 0.40999955
-0.28000045 0.31999955 0.43999955
-0.28000045 0.34999955 -0.31000045
-0.28000045 0.34999955 0.37999955
-0.28000045 0.34999955 0.40999955
-0.28000045 0.37999955 -0.31000045
-0.28000045 0.37999955 0.34999955
-0.28000045 0.37999955 0.37999955
-0.28000045 0.40999955 -0.31000045
-0.28000045 0.40999955 0.31999955
-0.28000045 0.40999955 0.34999955
-0.28000045 0.43999955 -0.28000045
-0.28000045 0.43999955 0.31999955
-0.28000045 0.46999955 -0.28000045
-0.28000045 0.46999955 0.28999954
-0.28000045 0.49999955 -0.25000045
-0.28000045 0.49999955 0.25999954
-0.28000045 0.49999955 0.28999954
-0.28000045 0.52999955 -0.25000045
-0.28000045 0.52999955 0.25999954
-0.28000045 0.5599995 -0.22000045
-0.28000045 0.5599995 0.22999956
-0.28000045 0.5599995 0.25999954
-0.28000045 0.5899995 -0.22000045
-0.28000045 0.5899995 0.22999956
-0.28000045 0.61999947 -0.22000045
-0.28000045 0.61999947 0.22999956
-0.28000045 0.64999944 -0.22000045
-0.28000045 0.64999944 -0.19000044
-0.28000045 0.64999944 0.19999956
-0.28000045 0.6799994 -0.19000044
-0.28000045 0.6799994 0.19999956
-0.28000045 0.7099994 -0.19000044
-0.28000045 0.7099994 0.19999956
-0.28000045 0.73999935 -0.19000044
-0.28000045 0.73999935 0.16999955
-0.28000045 0.73999935 0.19999956
-0.28000045 0.7699993 -0.19000044
-0.28000045 0.7699993 -0.16000044
-0.28000045 0.7699993 0.16999955
-0.28000045 0.7999993 -0.16000044
-0.28000045 0.7999993 0.16999955
-0.28000045 0.82999927 -0.16000044
-0.28000045 0.82999927 0.16999955
-0.28000045 0.85999924 -0.16000044
-0.28000045 0.85999924 0.16999955
-0.28000045 0.8899992 -0.16000044
-0.28000045 0.8899992 0.13999955
-0.28000045 0.8899992 0.16999955
-0.28000045 0.9199992 -0.16000044
-0.28000045 0.9199992 0.13999955
-0.28000045 0.94999915 -0.16000044
-0.28000045 0.94999915 -0.13000044
-0.28000045 0.94999915 0.13999955
-0.28000045 0.9799991 -0.13000044
-0.28000045 0.9799991 0.13999955
-0.28000045 1.0099992 -0.13000044
-0.28000045 1.0099992 0.13999955
-0.28000045 1.0399991 -0.13000044
-0.28000045 1.0399991 0.13999955
-0.28000045 1.0699991 -0.13000044
-0.28000045 1.0699991 -0.10000044
-0.28000045 1.0699991 0.10999956
-0.28000045 1.0999991 -0.10000044
-0.28000045 1.0999991 -0.07000044
-0.28000045 1.0999991 0.07999956
-0.28000045 1.129999 -0.04000044
-0.28000045 1.129999 -0.010000439
-0.28000045 1.129999 0.01999956
-0.28000045 1.129999 0.049999557
-0.25000045 -0.43000045 -0.10000044
-0.25000045 -0.43000045 -0.07000044
-0.25000045 -0.43000045 -0.04000044
-0.25000045 -0.43000045 -0.010000439
-0.25000045 -0.43000045 0.01999956
-0.25000045 -0.43000045 0.049999557
-0.25000045 -0.43000045 0.07999956
-0.25000045 -0.43000045 0.10999956
-0.25000045 -0.43000045 0.13999955
-0.25000045 -0.40000045 -0.19000044
-0.25000045 -0.40000045 -0.16000044
-0.25000045 -0.40000045 0.16999955
-0.25000045 -0.40000045 0.19999956
-0.25000045 -0.40000045 0.22999956
-0.25000045 -0.37000045 -0.22000045
-0.25000045 -0.37000045 0.28999954
-0.25000045 -0.37000045 0.31999955
-0.25000045 -0.34000045 -0.28000045
-0.25000045 -0.34000045 -0.25000045
-0.25000045 -0.34000045 0.34999955
-0.25000045 -0.34000045 0.37999955
-0.25000045 -0.31000045 -0.31000045
-0.25000045 -0.31000045 0.40999955
-0.25000045 -0.31000045 0.43999955
-0.25000045 -0.31000045 0.46999955
-0.25000045 -0.28000045 -0.34000045
-0.25000045 -0.28000045 0.49999955
-0.25000045 -0.28000045 0.52999955
-0.25000045 -0.25000045 -0.34000045
-0.25000045 -0.25000045 0.5899995
-0.25000045 -0.25000045 0.61999947
-0.25000045 -0.25000045 0.64999944
-0.25000045 -0.22000045 -0.37000045
-0.25000045 -0.22000045 0.7099994
-0.25000045 -0.22000045 0.73999935
-0.25000045 -0.22000045 0.7699993
-0.25000045 -0.22000045 0.7999993
-0.25000045 -0.22000045 0.82999927
-0.25000045 -0.19000044 -0.40000045
-0.25000045 -0.19000044 0.8899992
-0.25000045 -0.19000044 0.9199992
-0.25000045 -0.19000044 0.94999915
-0.25000045 -0.19000044 0.9799991
-0.25000045 -0.19000044 1.0099992
-0.25000045 -0.19000044 1.0399991
-0.25000045 -0.16000044 -0.40000045
-0.25000045 -0.16000044 1.0699991
-0.25000045 -0.16000044 1.0999991
-0.25000045 -0.13000044 1.129999
-0.25000045 -0.10000044 -0.43000045
-0.25000045 -0.10000044 1.159999
-0.25000045 -0.07000044 -0.43000045
-0.25000045 -0.07000044 1.159999
-0.25000045 -0.04000044 -0.43000045
-0.25000045 -0.010000439 -0.43000045
-0.25000045 0.01999956 -0.43000045
-0.25000045 0.049999557 -0.43000045
-0.25000045 0.049999557 1.159999
-0.25000045 0.07999956 -0.43000045
-0.25000045 0.07999956 1.159999
-0.25000045 0.10999956 -0.43000045
-0.25000045 0.10999956 1.129999
-0.25000045 0.13999955 -0.43000045
-0.25000045 0.13999955 1.0999991
-0.25000045 0.13999955 1.129999
-0.25000045 0.16999955 -0.40000045
-0.25000045 0.16999955 1.0399991
-0.25000045 0.16999955 1.0699991
-0.25000045 0.19999956 -0.40000045
-0.25000045 0.19999956 0.82999927
-0.25000045 0.19999956 0.85999924
-0.25000045 0.19999956 0.8899992
-0.25000045 0.19999956 0.9199992
-0.25000045 0.19999956 0.94999915
-0.25000045 0.19999956 0.9799991
-0.25000045 0.19999956 1.0099992
-0.25000045 0.22999956 -0.40000045
-0.25000045 0.22999956 0.6799994
-0.25000045 0.22999956 0.7099994
-0.25000045 0.22999956 0.73999935
-0.25000045 0.22999956 0.7699993
-0.25000045 0.25999954 0.5899995
-0.25000045 0.25999954 0.61999947
-0.25000045 0.25999954 0.64999944
-0.25000045 0.28999954 -0.37000045
-0.25000045 0.28999954 0.52999955
-0.25000045 0.28999954 0.5599995
-0.25000045 0.31999955 -0.37000045
-0.25000045 0.31999955 0.46999955
-0.25000045 0.31999955 0.49999955
-0.25000045 0.34999955 -0.34000045
-0.25000045 0.34999955 0.43999955
-0.25000045 0.37999955 -0.34000045
-0.25000045 0.37999955 0.40999955
-0.25000045 0.40999955 -0.31000045
-0.25000045 0.40999955 0.37999955
-0.25000045 0.43999955 -0.31000045
-0.25000045 0.43999955 0.34999955
-0.25000045 0.46999955 -0.31000045
-0.25000045 0.46999955 0.31999955
-0.25000045 0.49999955 -0.28000045
-0.25000045 0.49999955 0.31999955
-0.25000045 0.52999955 -0.28000045
-0.25000045 0.52999955 0.28999954
-0.25000045 0.5599995 0.28999954
-0.25000045 0.5899995 -0.25000045
-0.25000045 0.5899995 0.25999954
-0.25000045 0.61999947 -0.25000045
-0.25000045 0.61999947 0.25999954
-0.25000045 0.64999944 -0.25000045
-0.25000045 0.64999944 0.25999954
-0.25000045 0.6799994 0.22999956
-0.25000045 0.7099994 -0.22000045
-0.25000045 0.7099994 0.22999956
-0.25000045 0.73999935 -0.22000045
-0.25000045 0.73999935 0.22999956
-0.25000045 0.7699993 -0.22000045
-0.25000045 0.7699993 0.22999956
-0.25000045 0.7999993 -0.22000045
-0.25000045 0.82999927 -0.22000045
-0.25000045 0.82999927 0.19999956
-0.25000045 0.85999924 0.19999956
-0.25000045 0.8899992 -0.19000044
-0.25000045 0.8899992 0.19999956
-0.25000045 0.9199992 -0.19000044
-0.25000045 0.9199992 0.19999956
-0.25000045 0.94999915 -0.19000044
-0.25000045 0.94999915 0.19999956
-0.25000045 0.9799991 -0.19000044
-0.25000045 0.9799991 0.19999956
-0.25000045 1.0099992 -0.19000044
-0.25000045 1.0099992 0.19999956
-0.25000045 1.0399991 -0.19000044
-0.25000045 1.0399991 0.16999955
-0.25000045 1.0699991 -0.16000044
-0.25000045 1.0699991 0.16999955
-0.25000045 1.0999991 -0.16000044
-0.25000045 1.0999991 0.13999955
-0.25000045 1.129999 -0.13000044
-0.25000045 1.129999 0.10999956
-0.25000045 1.129999 0.13999955
-0.25000045 1.159999 -0.10000044
-0.25000045 1.159999 -0.07000044
-0.25000045 1.159999 0.049999557
-0.25000045 1.159999 0.07999956
-0.22000045 -0.46000046 -0.010000439
-0.22000045 -0.46000046 0.01999956
-0.22000045 -0.43000045 -0.16000044
-0.22000045 -0.43000045 -0.13000044
-0.22000045 -0.43000045 -0.10000044
-0.22000045 -0.43000045 0.10999956
-0.22000045 -0.43000045 0.13999955
-0.22000045 -0.43000045 0.16999955
-0.22000045 -0.43000045 0.19999956
-0.22000045 -0.40000045 -0.22000045
-0.22000045 -0.40000045 -0.19000044
-0.22000045 -0.40000045 0.22999956
-0.22000045 -0.40000045 0.25999954
-0.22000045 -0.40000045 0.28999954
-0.22000045 -0.37000045 -0.25000045
-0.22000045 -0.37000045 0.31999955
-0.22000045 -0.37000045 0.34999955
-0.22000045 -0.34000045 -0.31000045
-0.22000045 -0.34000045 -0.28000045
-0.22000045 -0.34000045 0.40999955
-0.22000045 -0.34000045 0.43999955
-0.22000045 -0.31000045 -0.34000045
-0.22000045 -0.31000045 -0.31000045
-0.22000045 -0.31000045 0.46999955
-0.22000045 -0.31000045 0.49999955
-0.22000045 -0.31000045 0.52999955
-0.22000045 -0.28000045 -0.34000045
-0.22000045 -0.28000045 0.5599995
-0.22000045 -0.28000045 0.5899995
-0.22000045 -0.28000045 0.61999947
-0.22000045 -0.28000045 0.64999944
-0.22000045 -0.25000045 -0.37000045
-0.22000045 -0.25000045 0.7099994
-0.22000045 -0.25000045 0.73999935
-0.22000045 -0.25000045 0.7699993
-0.22000045 -0.25000045 0.7999993
-0.22000045 -0.25000045 0.82999927
-0.22000045 -0.22000045 -0.40000045
-0.22000045 -0.22000045 0.9199992
-0.22000045 -0.22000045 0.94999915
-0.22000045 -0.22000045 0.9799991
-0.22000045 -0.22000045 1.0099992
-0.22000045 -0.22000045 1.0399991
-0.22000045 -0.19000044 -0.40000045
-0.22000045 -0.19000044 1.0999991
-0.22000045 -0.16000044 -0.43000045
-0.22000045 -0.16000044 1.129999
-0.22000045 -0.13000044 -0.43000045
-0.22000045 -0.13000044 1.159999
-0.22000045 -0.10000044 -0.43000045
-0.22000045 -0.10000044 1.189999
-0.22000045 -0.010000439 -0.46000046
-0.22000045 -0.010000439 1.219999
-0.22000045 0.01999956 -0.46000046
-0.22000045 0.01999956 1.219999
-0.22000045 0.07999956 1.189999
-0.22000045 0.10999956 -0.43000045
-0.22000045 0.10999956 1.189999
-0.22000045 0.13999955 -0.43000045
-0.22000045 0.13999955 1.159999
-0.22000045 0.16999955 -0.43000045
-0.22000045 0.16999955 1.129999
-0.22000045 0.19999956 -0.43000045
-0.22000045 0.19999956 1.0699991
-0.22000045 0.19999956 1.0999991
-0.22000045 0.22999956 -0.40000045
-0.22000045 0.22999956 0.82999927
-0.22000045 0.22999956 0.85999924
-0.22000045 0.22999956 0.8899992
-0.22000045 0.22999956 0.9199992
-0.22000045 0.22999956 0.94999915
-0.22000045 0.22999956 0.9799991
-0.22000045 0.22999956 1.0099992
-0.22000045 0.25999954 -0.40000045
-0.22000045 0.25999954 0.6799994
-0.22000045 0.25999954 0.7099994
-0.22000045 0.25999954 0.73999935
-0.22000045 0.25999954 0.7699993
-0.22000045 0.28999954 -0.40000045
-0.22000045 0.28999954 0.5899995
-0.22000045 0.28999954 0.61999947
-0.22000045 0.31999955 -0.37000045
-0.22000045 0.31999955 0.49999955
-0.22000045 0.31999955 0.52999955
-0.22000045 0.31999955 0.5599995
-0.22000045 0.34999955 -0.37000045
-0.22000045 0.34999955 0.46999955
-0.22000045 0.34999955 0.49999955
-0.22000045 0.37999955 0.43999955
-0.22000045 0.40999955 -0.34000045
-0.22000045 0.40999955 0.40999955
-0.22000045 0.43999955 -0.34000045
-0.22000045 0.43999955 0.37999955
-0.22000045 0.46999955 -0.31000045
-0.22000045 0.46999955 0.34999955
-0.22000045 0.49999955 -0.31000045
-0.22000045 0.49999955 0.31999955
-0.22000045 0.49999955 0.34999955
-0.22000045 0.52999955 -0.31000045
-0.22000045 0.52999955 0.31999955
-0.22000045 0.5599995 -0.28000045
-0.22000045 0.5599995 0.31999955
-0.22000045 0.5899995 -0.28000045
-0.22000045 0.5899995 0.28999954
-0.22000045 0.61999947 -0.28000045
-0.22000045 0.61999947 0.28999954
-0.22000045 0.64999944 -0.28000045
-0.22000045 0.6799994 0.25999954
-0.22000045 0.7099994 -0.25000045
-0.22000045 0.7099994 0.25999954
-0.22000045 0.73999935 -0.25000045
-0.22000045 0.73999935 0.25999954
-0.22000045 0.7699993 -0.25000045
-0.22000045 0.7699993 0.25999954
-0.22000045 0.7999993 -0.25000045
-0.22000045 0.82999927 -0.25000045
-0.22000045 0.82999927 0.22999956
-0.22000045 0.85999924 0.22999956
-0.22000045 0.8899992 0.22999956
-0.22000045 0.9199992 -0.22000045
-0.22000045 0.9199992 0.22999956
-0.22000045 0.94999915 -0.22000045
-0.22000045 0.94999915 0.22999956
-0.22000045 0.9799991 -0.22000045
-0.22000045 0.9799991 0.22999956
-0.22000045 1.0099992 -0.22000045
-0.22000045 1.0099992 0.22999956
-0.22000045 1.0399991 -0.22000045
-0.22000045 1.0699991 0.19999956
-0.22000045 1.0999991 -0.19000044
-0.22000045 1.0999991 0.19999956
-0.22000045 1.129999 -0.16000044
-0.22000045 1.129999 0.16999955
-0.22000045 1.159999 -0.13000044
-0.22000045 1.159999 0.13999955
-0.22000045 1.189999 -0.10000044
-0.22000045 1.189999 0.07999956
-0.22000045 1.189999 0.10999956
-0.22000045 1.219999 -0.010000439
-0.22000045 1.219999 0.01999956
-0.19000044 -0.46000046 -0.10000044
-0.19000044 -0.46000046 -0.07000044
-0.19000044 -0.46000046 -0.04000044
-0.19000044 -0.46000046 -0.010000439
-0.19000044 -0.46000046 0.01999956
-0.19000044 -0.46000046 0.049999557
-0.19000044 -0.46000046 0.07999956
-0.19000044 -0.46000046 0.10999956
-0.19000044 -0.46000046 0.13999955
-0.19000044 -0.43000045 -0.19000044
-0.19000044 -0.43000045 -0.16000044
-0.19000044 -0.43000045 0.19999956
-0.19000044 -0.43000045 0.22999956
-0.19000044 -0.40000045 -0.25000045
-0.19000044 -0.40000045 -0.22000045
-0.19000044 -0.40000045 0.28999954
-0.19000044 -0.40000045 0.31999955
-0.19000044 -0.37000045 -0.28000045
-0.19000044 -0.37000045 0.37999955
-0.19000044 -0.37000045 0.40999955
-0.19000044 -0.34000045 -0.31000045
-0.19000044 -0.34000045 0.43999955
-0.19000044 -0.34000045 0.46999955
-0.19000044 -0.34000045 0.49999955
-0.19000044 -0.31000045 -0.34000045
-0.19000044 -0.31000045 0.52999955
-0.19000044 -0.31000045 0.5599995
-0.19000044 -0.31000045 0.5899995
-0.19000044 -0.28000045 -0.37000045
-0.19000044 -0.28000045 0.64999944
-0.19000044 -0.28000045 0.6799994
-0.19000044 -0.28000045 0.7099994
-0.19000044 -0.28000045 0.73999935
-0.19000044 -0.28000045 0.7699993
-0.19000044 -0.25000045 -0.40000045
-0.19000044 -0.25000045 0.8899992
-0.19000044 -0.25000045 0.9199992
-0.19000044 -0.25000045 0.94999915
-0.19000044 -0.25000045 0.9799991
-0.19000044 -0.25000045 1.0099992
-0.19000044 -0.25000045 1.0399991
-0.19000044 -0.22000045 -0.40000045
-0.19000044 -0.22000045 1.0999991
-0.19000044 -0.19000044 -0.43000045
-0.19000044 -0.19000044 1.159999
-0.19000044 -0.16000044 -0.43000045
-0.19000044 -0.16000044 1.189999
-0.19000044 -0.10000044 -0.46000046
-0.19000044 -0.10000044 1.219999
-0.19000044 -0.07000044 -0.46000046
-0.19000044 -0.07000044 1.219999
-0.19000044 -0.04000044 -0.46000046
-0.19000044 -0.010000439 -0.46000046
-0.19000044 0.01999956 -0.46000046
-0.19000044 0.049999557 -0.46000046
-0.19000044 0.07999956 -0.46000046
-0.19000044 0.07999956 1.219999
-0.19000044 0.10999956 -0.46000046
-0.19000044 0.10999956 1.219999
-0.19000044 0.13999955 -0.46000046
-0.19000044 0.13999955 1.189999
-0.19000044 0.16999955 1.159999
-0.19000044 0.19999956 -0.43000045
-0.19000044 0.19999956 1.129999
-0.19000044 0.22999956 -0.43000045
-0.19000044 0.22999956 1.0699991
-0.19000044 0.22999956 1.0999991
-0.19000044 0.25999954 0.7999993
-0.19000044 0.25999954 0.82999927
-0.19000044 0.25999954 0.85999924
-0.19000044 0.25999954 0.8899992
-0.19000044 0.25999954 0.9199992
-0.19000044 0.25999954 0.94999915
-0.19000044 0.25999954 0.9799991
-0.19000044 0.28999954 -0.40000045
-0.19000044 0.28999954 0.64999944
-0.19000044 0.28999954 0.6799994
-0.19000044 0.28999954 0.7099994
-0.19000044 0.28999954 0.73999935
-0.19000044 0.31999955 -0.40000045
-0.19000044 0.31999955 0.5599995
-0.19000044 0.31999955 0.5899995
-0.19000044 0.31999955 0.61999947
-0.19000044 0.34999955 0.49999955
-0.19000044 0.34999955 0.52999955
-0.19000044 0.37999955 -0.37000045
-0.19000044 0.37999955 0.46999955
-0.19000044 0.40999955 -0.37000045
-0.19000044 0.40999955 0.40999955
-0.19000044 0.40999955 0.43999955
-0.19000044 0.43999955 -0.34000045
-0.19000044 0.43999955 0.40999955
-0.19000044 0.46999955 -0.34000045
-0.19000044 0.46999955 0.37999955
-0.19000044 0.49999955 -0.34000045
-0.19000044 0.49999955 0.34999955
-0.19000044 0.52999955 -0.31000045
-0.19000044 0.52999955 0.34999955
-0.19000044 0.5599995 -0.31000045
-0.19000044 0.5599995 0.31999955
-0.19000044 0.5899995 -0.31000045
-0.19000044 0.5899995 0.31999955
-0.19000044 0.61999947 0.31999955
-0.19000044 0.64999944 -0.28000045
-0.19000044 0.64999944 0.28999954
-0.19000044 0.6799994 -0.28000045
-0.19000044 0.6799994 0.28999954
-0.19000044 0.7099994 -0.28000045
-0.19000044 0.7099994 0.28999954
-0.19000044 0.73999935 -0.28000045
-0.19000044 0.73999935 0.28999954
-0.19000044 0.7699993 -0.28000045
-0.19000044 0.7999993 0.25999954
-0.19000044 0.82999927 0.25999954
-0.19000044 0.85999924 0.25999954
-0.19000044 0.8899992 -0.25000045
-0.19000044 0.8899992 0.25999954
-0.19000044 0.9199992 -0.25000045
-0.19000044 0.9199992 0.25999954
-0.19000044 0.94999915 -0.25000045
-0.19000044 0.94999915 0.25999954
-0.19000044 0.9799991 -0.25000045
-0.19000044 0.9799991 0.25999954
-0.19000044 1.0099992 -0.25000045
-0.19000044 1.0399991 -0.25000045
-0.19000044 1.0699991 0.22999956
-0.19000044 1.0999991 -0.22000045
-0.19000044 1.0999991 0.22999956
-0.19000044 1.129999 0.19999956
-0.19000044 1.159999 -0.19000044
-0.19000044 1.159999 0.16999955
-0.19000044 1.189999 -0.16000044
-0.19000044 1.189999 0.13999955
-0.19000044 1.219999 -0.10000044
-0.19000044 1.219999 -0.07000044
-0.19000044 1.219999 0.07999956
-0.19000044 1.219999 0.10999956
-0.16000044 -0.46000046 -0.13000044
-0.16000044 -0.46000046 -0.10000044
-0.16000044 -0.46000046 -0.07000044
-0.16000044 -0.46000046 0.07999956
-0.16000044 -0.46000046 0.10999956
-0.16000044 -0.46000046 0.13999955
-0.16000044 -0.46000046 0.16999955
-0.16000044 -0.43000045 -0.22000045
-0.16000044 -0.43000045 -0.19000044
-0.16000044 -0.43000045 0.22999956
-0.16000044 -0.43000045 0.25999954
-0.16000044 -0.43000045 0.28999954
-0.16000044 -0.40000045 -0.25000045
-0.16000044 -0.40000045 0.31999955
-0.16000044 -0.40000045 0.34999955
-0.16000044 -0.37000045 -0.31000045
-0.16000044 -0.37000045 -0.28000045
-0.16000044 -0.37000045 0.40999955
-0.16000044 -0.37000045 0.43999955
-0.16000044 -0.34000045 -0.34000045
-0.16000044 -0.34000045 0.49999955
-0.16000044 -0.34000045 0.52999955
-0.16000044 -0.31000045 -0.37000045
-0.16000044 -0.31000045 0.5899995
-0.16000044 -0.31000045 0.61999947
-0.16000044 -0.31000045 0.64999944
-0.16000044 -0.31000045 0.6799994
-0.16000044 -0.28000045 -0.37000045
-0.16000044 -0.28000045 0.7699993
-0.16000044 -0.28000045 0.7999993
-0.16000044 -0.28000045 0.82999927
-0.16000044 -0.28000045 0.85999924
-0.16000044 -0.28000045 0.8899992
-0.16000044 -0.28000045 0.9199992
-0.16000044 -0.28000045 0.94999915
-0.16000044 -0.25000045 -0.40000045
-0.16000044 -0.25000045 1.0699991
-0.16000044 -0.25000045 1.0999991
-0.16000044 -0.22000045 -0.43000045
-0.16000044 -0.22000045 1.129999
-0.16000044 -0.19000044 -0.43000045
-0.16000044 -0.19000044 1.189999
-0.16000044 -0.13000044 -0.46000046
-0.16000044 -0.13000044 1.219999
